ply
format ascii 1.0
element vertex 394
property float x
property float y
property float z
property uchar red
property uchar green
property uchar blue
end_header
-0.5 -0.5 -0.5 255 100 100
-0.4 -0.5 -0.5 255 110 100
-0.3 -0.5 -0.5 255 120 100
-0.2 -0.5 -0.5 255 130 100
-0.1 -0.5 -0.5 255 140 100
0.0 -0.5 -0.5 255 150 100
0.1 -0.5 -0.5 255 160 100
0.2 -0.5 -0.5 255 170 100
0.3 -0.5 -0.5 255 180 100
0.4 -0.5 -0.5 255 190 100
0.5 -0.5 -0.5 255 200 100
-0.5 -0.4 -0.4 200 255 100
-0.4 -0.4 -0.4 210 255 100
-0.3 -0.4 -0.4 220 255 100
-0.2 -0.4 -0.4 230 255 100
-0.1 -0.4 -0.4 240 255 100
0.0 -0.4 -0.4 250 255 100
0.1 -0.4 -0.4 255 255 100
0.2 -0.4 -0.4 255 245 100
0.3 -0.4 -0.4 255 235 100
0.4 -0.4 -0.4 255 225 100
0.5 -0.4 -0.4 255 215 100
-0.5 -0.3 -0.3 100 255 100
-0.4 -0.3 -0.3 110 255 110
-0.3 -0.3 -0.3 120 255 120
-0.2 -0.3 -0.3 130 255 130
-0.1 -0.3 -0.3 140 255 140
0.0 -0.3 -0.3 150 255 150
0.1 -0.3 -0.3 160 255 160
0.2 -0.3 -0.3 170 255 170
0.3 -0.3 -0.3 180 255 180
0.4 -0.3 -0.3 190 255 190
0.5 -0.3 -0.3 200 255 200
-0.5 -0.2 -0.2 100 200 255
-0.4 -0.2 -0.2 110 210 255
-0.3 -0.2 -0.2 120 220 255
-0.2 -0.2 -0.2 130 230 255
-0.1 -0.2 -0.2 140 240 255
0.0 -0.2 -0.2 150 250 255
0.1 -0.2 -0.2 160 255 255
0.2 -0.2 -0.2 170 245 255
0.3 -0.2 -0.2 180 235 255
0.4 -0.2 -0.2 190 225 255
0.5 -0.2 -0.2 200 215 255
-0.5 -0.1 -0.1 150 150 255
-0.4 -0.1 -0.1 155 155 255
-0.3 -0.1 -0.1 160 160 255
-0.2 -0.1 -0.1 165 165 255
-0.1 -0.1 -0.1 170 170 255
0.0 -0.1 -0.1 175 175 255
0.1 -0.1 -0.1 180 180 255
0.2 -0.1 -0.1 185 185 255
0.3 -0.1 -0.1 190 190 255
0.4 -0.1 -0.1 195 195 255
0.5 -0.1 -0.1 200 200 255
-0.5 0.0 0.0 255 255 255
-0.4 0.0 0.0 250 250 250
-0.3 0.0 0.0 245 245 245
-0.2 0.0 0.0 240 240 240
-0.1 0.0 0.0 235 235 235
0.0 0.0 0.0 230 230 230
0.1 0.0 0.0 225 225 225
0.2 0.0 0.0 220 220 220
0.3 0.0 0.0 215 215 215
0.4 0.0 0.0 210 210 210
0.5 0.0 0.0 205 205 205
-0.5 0.1 0.1 255 150 150
-0.4 0.1 0.1 255 155 155
-0.3 0.1 0.1 255 160 160
-0.2 0.1 0.1 255 165 165
-0.1 0.1 0.1 255 170 170
0.0 0.1 0.1 255 175 175
0.1 0.1 0.1 255 180 180
0.2 0.1 0.1 255 185 185
0.3 0.1 0.1 255 190 190
0.4 0.1 0.1 255 195 195
0.5 0.1 0.1 255 200 200
-0.5 0.2 0.2 200 255 150
-0.4 0.2 0.2 210 255 155
-0.3 0.2 0.2 220 255 160
-0.2 0.2 0.2 230 255 165
-0.1 0.2 0.2 240 255 170
0.0 0.2 0.2 250 255 175
0.1 0.2 0.2 255 255 180
0.2 0.2 0.2 245 255 185
0.3 0.2 0.2 235 255 190
0.4 0.2 0.2 225 255 195
0.5 0.2 0.2 215 255 200
-0.5 0.3 0.3 150 255 200
-0.4 0.3 0.3 155 255 210
-0.3 0.3 0.3 160 255 220
-0.2 0.3 0.3 165 255 230
-0.1 0.3 0.3 170 255 240
0.0 0.3 0.3 175 255 250
0.1 0.3 0.3 180 255 255
0.2 0.3 0.3 185 245 255
0.3 0.3 0.3 190 235 255
0.4 0.3 0.3 195 225 255
0.5 0.3 0.3 200 215 255
-0.5 0.4 0.4 150 200 255
-0.4 0.4 0.4 155 210 255
-0.3 0.4 0.4 160 220 255
-0.2 0.4 0.4 165 230 255
-0.1 0.4 0.4 170 240 255
0.0 0.4 0.4 175 250 255
0.1 0.4 0.4 180 255 255
0.2 0.4 0.4 185 255 245
0.3 0.4 0.4 190 255 235
0.4 0.4 0.4 195 255 225
0.5 0.4 0.4 200 255 215
-0.5 0.5 0.5 200 150 255
-0.4 0.5 0.5 210 155 255
-0.3 0.5 0.5 220 160 255
-0.2 0.5 0.5 230 165 255
-0.1 0.5 0.5 240 170 255
0.0 0.5 0.5 250 175 255
0.1 0.5 0.5 255 180 255
0.2 0.5 0.5 245 185 255
0.3 0.5 0.5 235 190 255
0.4 0.5 0.5 225 195 255
0.5 0.5 0.5 215 200 255
-0.4 -0.3 0.0 255 100 200
-0.3 -0.2 0.1 200 255 100
-0.2 -0.1 0.2 100 200 255
-0.1 0.0 0.3 255 150 150
0.0 0.1 0.4 150 255 150
0.1 0.2 0.3 150 150 255
0.2 0.3 0.2 255 255 100
0.3 0.4 0.1 100 255 255
0.4 0.3 0.0 255 100 255
-0.3 0.0 -0.2 180 180 255
-0.2 0.1 -0.1 255 180 180
-0.1 0.2 0.0 180 255 180
0.0 0.3 0.1 255 255 180
0.1 0.2 0.2 180 255 255
0.2 0.1 0.3 255 180 255
0.3 0.0 0.4 200 200 200
-0.2 -0.2 0.0 255 255 255
-0.1 -0.1 0.1 240 240 240
0.0 0.0 0.2 220 220 220
0.1 0.1 0.3 200 200 200
0.2 0.2 0.4 180 180 180
-0.1 0.0 -0.1 255 200 200
0.0 0.1 0.0 200 255 200
0.1 0.2 0.1 200 200 255
-0.45 -0.45 -0.45 255 0 0
-0.35 -0.35 -0.35 0 255 0
-0.25 -0.25 -0.25 0 0 255
-0.15 -0.15 -0.15 255 255 0
-0.05 -0.05 -0.05 255 0 255
0.05 0.05 0.05 0 255 255
0.15 0.15 0.15 128 128 128
0.25 0.25 0.25 255 128 0
0.35 0.35 0.35 128 255 0
0.45 0.45 0.45 255 128 128
-0.4 0.0 -0.4 200 100 50
-0.3 0.1 -0.3 180 120 70
-0.2 0.2 -0.2 160 140 90
-0.1 0.3 -0.1 140 160 110
0.0 0.4 0.0 120 180 130
0.1 0.3 0.1 100 200 150
0.2 0.2 0.2 80 220 170
0.3 0.1 0.3 60 240 190
0.4 0.0 0.4 40 255 210
-0.35 -0.1 0.2 255 50 100
-0.25 0.0 0.3 230 70 120
-0.15 0.1 0.4 200 90 140
-0.05 0.2 0.5 170 110 160
0.05 0.3 0.4 140 130 180
0.15 0.4 0.3 110 150 200
0.25 0.5 0.2 80 170 220
0.35 0.4 0.1 50 190 240
-0.3 -0.4 0.3 100 255 50
-0.2 -0.3 0.4 120 230 70
-0.1 -0.2 0.5 140 200 90
0.0 -0.1 0.4 160 170 110
0.1 0.0 0.3 180 140 130
0.2 0.1 0.2 200 110 150
0.3 0.2 0.1 220 80 170
-0.25 -0.05 -0.3 50 100 255
-0.15 0.05 -0.2 70 120 230
-0.05 0.15 -0.1 90 140 200
0.05 0.25 0.0 110 160 170
0.15 0.35 0.1 130 180 140
0.25 0.45 0.2 150 200 110
-0.2 0.3 -0.4 255 80 160
-0.1 0.4 -0.3 230 100 180
0.0 0.5 -0.2 200 120 200
0.1 0.4 -0.1 170 140 220
0.2 0.3 0.0 140 160 240
-0.4 -0.2 0.1 80 255 120
-0.3 -0.1 0.2 100 230 140
-0.2 0.0 0.3 120 200 160
-0.1 0.1 0.4 140 170 180
0.0 0.2 0.5 160 140 200
0.1 0.3 0.4 180 110 220
0.2 0.4 0.3 200 80 240
0.3 0.5 0.2 220 50 255
0.4 0.4 0.1 240 30 230
-0.35 0.2 -0.15 120 80 255
-0.25 0.3 -0.05 140 100 230
-0.15 0.4 0.05 160 120 200
-0.05 0.5 0.15 180 140 170
0.05 0.4 0.25 200 160 140
0.15 0.3 0.35 220 180 110
0.25 0.2 0.45 240 200 80
0.35 0.1 0.35 255 220 50
-0.45 0.1 0.05 255 160 80
-0.35 0.2 0.15 230 180 100
-0.25 0.3 0.25 200 200 120
-0.15 0.4 0.35 170 220 140
-0.05 0.5 0.45 140 240 160
0.05 0.4 0.35 110 255 180
0.15 0.3 0.25 80 230 200
0.25 0.2 0.15 50 200 220
0.35 0.1 0.05 30 170 240
0.45 0.0 -0.05 10 140 255
-0.5 0.0 0.5 255 255 0
-0.4 0.1 0.4 255 230 20
-0.3 0.2 0.3 255 200 40
-0.2 0.3 0.2 255 170 60
-0.1 0.4 0.1 255 140 80
0.0 0.5 0.0 255 110 100
0.1 0.4 -0.1 255 80 120
0.2 0.3 -0.2 255 50 140
0.3 0.2 -0.3 255 20 160
0.4 0.1 -0.4 255 0 180
0.5 0.0 -0.5 230 0 200
-0.45 -0.3 0.15 0 255 255
-0.35 -0.2 0.25 20 230 255
-0.25 -0.1 0.35 40 200 255
-0.15 0.0 0.45 60 170 255
-0.05 0.1 0.35 80 140 255
0.05 0.2 0.25 100 110 255
0.15 0.3 0.15 120 80 255
0.25 0.4 0.05 140 50 255
0.35 0.3 -0.05 160 20 255
0.45 0.2 -0.15 180 0 255
-0.4 -0.4 0.4 255 128 128
-0.3 -0.3 0.3 128 255 128
-0.2 -0.2 0.2 128 128 255
-0.1 -0.1 0.1 255 255 128
0.0 0.0 0.0 255 128 255
0.1 0.1 -0.1 128 255 255
0.2 0.2 -0.2 255 200 100
0.3 0.3 -0.3 100 255 200
0.4 0.4 -0.4 200 100 255
-0.35 -0.05 -0.25 64 64 255
-0.25 0.05 -0.15 64 255 64
-0.15 0.15 -0.05 255 64 64
-0.05 0.25 0.05 255 255 64
0.05 0.35 0.15 255 64 255
0.15 0.25 0.25 64 255 255
0.25 0.15 0.35 192 192 192
0.35 0.05 0.25 255 192 64
-0.42 -0.12 0.08 32 128 255
-0.32 -0.02 0.18 64 160 255
-0.22 0.08 0.28 96 192 255
-0.12 0.18 0.38 128 224 255
-0.02 0.28 0.48 160 255 255
0.08 0.38 0.38 192 255 224
0.18 0.48 0.28 224 255 192
0.28 0.38 0.18 255 255 160
0.38 0.28 0.08 255 224 128
0.48 0.18 -0.02 255 192 96
-0.48 0.18 -0.02 255 96 192
-0.38 0.28 0.08 224 128 255
-0.28 0.38 0.18 192 160 255
-0.18 0.48 0.28 160 192 255
-0.08 0.38 0.38 128 224 255
0.02 0.28 0.48 96 255 255
0.12 0.18 0.38 64 255 224
0.22 0.08 0.28 32 255 192
0.32 -0.02 0.18 16 255 160
0.42 -0.12 0.08 8 255 128
-0.33 -0.33 -0.33 255 0 127
-0.23 -0.23 -0.23 127 255 0
-0.13 -0.13 -0.13 0 127 255
-0.03 -0.03 -0.03 255 127 127
0.07 0.07 0.07 127 127 255
0.17 0.17 0.17 255 255 127
0.27 0.27 0.27 200 200 200
0.37 0.37 0.37 100 100 100
-0.47 0.03 0.23 255 64 128
-0.37 0.13 0.33 192 96 160
-0.27 0.23 0.43 128 128 192
-0.17 0.33 0.33 64 160 224
-0.07 0.43 0.23 32 192 255
0.03 0.33 0.13 16 224 192
0.13 0.23 0.03 8 255 128
0.23 0.13 -0.07 4 192 64
0.33 0.03 -0.17 2 128 32
0.43 -0.07 -0.27 1 64 16
-0.43 -0.27 0.17 128 255 192
-0.33 -0.17 0.27 160 224 224
-0.23 -0.07 0.37 192 192 255
-0.13 0.03 0.47 224 160 255
-0.03 0.13 0.37 255 128 224
0.07 0.23 0.27 255 96 192
0.17 0.33 0.17 255 64 160
0.27 0.43 0.07 255 32 128
0.37 0.33 -0.03 255 16 96
0.47 0.23 -0.13 255 8 64
-0.41 -0.31 -0.21 72 72 255
-0.31 -0.21 -0.11 104 104 224
-0.21 -0.11 -0.01 136 136 192
-0.11 -0.01 0.09 168 168 160
-0.01 0.09 0.19 200 200 128
0.09 0.19 0.29 232 232 96
0.19 0.29 0.39 255 255 64
0.29 0.39 0.29 224 255 96
0.39 0.29 0.19 192 255 128
0.41 0.19 0.09 160 255 160
-0.39 -0.09 0.31 255 40 120
-0.29 0.01 0.41 220 70 150
-0.19 0.11 0.31 185 100 180
-0.09 0.21 0.21 150 130 210
0.01 0.31 0.11 115 160 240
0.11 0.41 0.01 80 190 255
0.21 0.31 -0.09 45 220 220
0.31 0.21 -0.19 10 250 185
0.39 0.11 -0.29 5 255 150
0.41 0.01 -0.39 3 230 115
-0.44 0.06 -0.14 200 60 240
-0.34 0.16 -0.04 170 90 210
-0.24 0.26 0.06 140 120 180
-0.14 0.36 0.16 110 150 150
-0.04 0.46 0.26 80 180 120
0.06 0.36 0.36 50 210 90
0.16 0.26 0.46 20 240 60
0.26 0.16 0.36 10 255 30
0.36 0.06 0.26 5 230 15
0.44 -0.04 0.16 2 200 8
-0.46 -0.16 0.24 90 255 180
-0.36 -0.06 0.34 120 230 210
-0.26 0.04 0.44 150 200 240
-0.16 0.14 0.34 180 170 255
-0.06 0.24 0.24 210 140 230
0.04 0.34 0.14 240 110 200
0.14 0.44 0.04 255 80 170
0.24 0.34 -0.06 230 50 140
0.34 0.24 -0.16 200 20 110
0.44 0.14 -0.26 170 10 80
-0.49 0.19 0.01 255 100 50
-0.39 0.29 0.11 255 130 80
-0.29 0.39 0.21 255 160 110
-0.19 0.49 0.31 255 190 140
-0.09 0.39 0.41 255 220 170
0.01 0.29 0.31 255 250 200
0.11 0.19 0.21 230 255 230
0.21 0.09 0.11 200 230 255
0.31 -0.01 0.01 170 200 230
0.41 -0.11 -0.09 140 170 200
0.49 -0.21 -0.19 110 140 170
-0.47 -0.23 -0.07 60 180 255
-0.37 -0.13 0.03 90 210 230
-0.27 -0.03 0.13 120 240 200
-0.17 0.07 0.23 150 255 170
-0.07 0.17 0.33 180 230 140
0.03 0.27 0.43 210 200 110
0.13 0.37 0.33 240 170 80
0.23 0.47 0.23 255 140 50
0.33 0.37 0.13 230 110 20
0.43 0.27 0.03 200 80 10
0.47 0.17 -0.07 170 50 5
-0.43 0.07 -0.33 255 20 100
-0.33 0.17 -0.23 230 50 130
-0.23 0.27 -0.13 200 80 160
-0.13 0.37 -0.03 170 110 190
-0.03 0.47 0.07 140 140 220
0.07 0.37 0.17 110 170 250
0.17 0.27 0.27 80 200 230
0.27 0.17 0.37 50 230 200
0.37 0.07 0.47 20 255 170
0.43 -0.03 0.37 10 230 140
-0.41 -0.17 -0.29 180 255 60
-0.31 -0.07 -0.19 210 230 90
-0.21 0.03 -0.09 240 200 120
-0.11 0.13 0.01 255 170 150
-0.01 0.23 0.11 230 140 180
0.09 0.33 0.21 200 110 210
0.19 0.43 0.31 170 80 240
0.29 0.33 0.41 140 50 255
0.39 0.23 0.31 110 20 230
0.41 0.13 0.21 80 10 200
-0.45 0.25 -0.05 255 150 30
-0.35 0.35 0.05 255 180 60
-0.25 0.45 0.15 255 210 90
-0.15 0.35 0.25 255 240 120
-0.05 0.25 0.35 255 255 150
0.05 0.15 0.45 230 255 180
0.15 0.05 0.35 200 255 210
0.25 -0.05 0.25 170 255 240
0.35 -0.15 0.15 140 230 255
0.45 -0.25 0.05 110 200 230